-123.115146 38.426505 -1.933226 204 186 151
-123.114923 38.426475 -2.621892 195 180 148
-123.114649 38.426443 -1.771614 195 169 120
-123.115121 38.426499 -2.000802 192 177 143
-123.114093 38.426406 7.991625 233 233 216
-123.115206 38.426511 -1.364179 196 178 138
-123.114728 38.426447 -2.085840 188 170 129
-123.114476 38.426418 -1.235130 183 165 129
-123.114083 38.426404 8.600258 218 214 195
-123.115234 38.426509 -1.794253 207 192 155
-123.115101 38.426494 -1.497314 203 187 151
-123.114977 38.426475 -2.215454 202 186 150
-123.114482 38.426416 -1.348209 177 159 125
-123.114131 38.426399 6.268930 183 180 115
-123.115177 38.426504 -0.766979 165 149 111
-123.115239 38.426503 -1.988698 204 186 145
-123.114943 38.426463 -2.725930 204 189 157
-123.114468 38.426406 -1.342918 169 151 118
-123.114714 38.426435 -2.092208 173 156 116
-123.114082 38.426397 8.835230 199 192 171
-123.115025 38.426471 -2.332045 199 183 150
-123.114259 38.426382 0.351912 220 212 179
-123.115175 38.426491 -1.350370 212 194 154
-123.114986 38.426461 -2.214334 193 176 134
-123.114515 38.426404 -1.361232 197 176 136
-123.114095 38.426401 11.343151 191 182 152
-123.115067 38.426469 -1.486172 197 181 147
-123.114715 38.426422 -2.230831 174 153 110
-123.114369 38.426382 -1.026017 205 188 146
-123.115100 38.426467 -2.022176 202 186 152
-123.114468 38.426390 -1.236779 180 153 112
-123.115229 38.426486 -1.176861 191 171 125
-123.115222 38.426482 -1.232433 188 167 124
-123.115107 38.426465 -1.484853 203 188 156
-123.114501 38.426388 -1.400061 186 160 114
-123.115095 38.426464 -1.141979 198 183 146
-123.114622 38.426400 -1.913940 189 171 133
-123.114854 38.426427 -2.590047 184 169 135
-123.114425 38.426376 -1.112319 190 166 127
-123.114802 38.426417 -2.486081 182 167 128
-123.114139 38.426365 5.167129 194 191 142
-123.115103 38.426461 -0.924963 196 182 146
-123.114611 38.426392 -1.867737 210 192 155
-123.114875 38.426418 -2.702821 185 167 132
-123.114993 38.426433 -2.237920 199 182 148
-123.115128 38.426454 -1.219988 195 173 131
-123.114942 38.426423 -2.744890 201 185 144
-123.115015 38.426433 -2.413980 199 183 151
-123.115201 38.426461 -0.929774 206 184 140
-123.115074 38.426441 -2.019298 187 171 136
-123.114133 38.426351 5.034206 193 178 139
-123.114555 38.426374 -1.610300 185 169 131
-123.114298 38.426347 -0.377807 159 150 110
-123.114189 38.426348 2.806855 220 221 191
-123.115122 38.426448 -1.186990 191 170 130
-123.115152 38.426449 -1.454319 190 174 137
-123.114830 38.426402 -2.488164 195 182 138
-123.115005 38.426423 -2.309055 206 192 160
-123.114110 38.426347 6.198963 167 160 97
-123.115214 38.426455 -0.898156 204 184 146
-123.114906 38.426408 -2.650772 196 181 148
-123.114839 38.426400 -2.456308 201 186 148
-123.115119 38.426441 -1.046888 212 194 161
-123.115110 38.426440 -0.842470 194 178 146
-123.115205 38.426448 -1.295814 207 186 141
-123.115183 38.426445 -1.370000 203 184 147
-123.114699 38.426379 -2.182440 178 157 116
-123.114096 38.426362 10.606177 171 165 135
-123.115033 38.426418 -2.393161 198 178 135
-123.114140 38.426338 5.081503 224 221 202
-123.115187 38.426440 -1.375867 197 179 136
-123.114989 38.426406 -2.897440 190 175 143
-123.115126 38.426431 -1.155985 205 187 150
-123.115033 38.426413 -2.359782 204 185 145
-123.115166 38.426432 -1.481096 207 191 153
-123.114912 38.426394 -2.780692 190 177 147
-123.114084 38.426355 11.209632 223 213 182
-123.114615 38.426359 -1.958191 217 197 153
-123.115127 38.426427 -0.950145 200 185 151
-123.114093 38.426348 9.954295 218 214 182
-123.114347 38.426325 -1.222635 192 170 133
-123.115046 38.426409 -2.390306 213 194 154
-123.115155 38.426427 -1.264622 205 187 149
-123.114437 38.426335 -1.300458 191 163 119
-123.115224 38.426431 -1.225493 214 196 161
-123.114580 38.426346 -1.900978 159 138 97
-123.114671 38.426355 -2.244120 201 186 152
-123.115167 38.426423 -0.930970 203 185 145
-123.115007 38.426394 -2.469747 192 176 142
-123.114164 38.426316 3.600029 150 155 103
-123.115205 38.426418 -2.455451 199 183 148
-123.114882 38.426376 -2.767623 198 181 146
-123.114239 38.426310 0.488396 183 173 119
-123.114077 38.426337 10.036946 203 204 183
-123.115141 38.426416 -1.241577 214 195 154
-123.115022 38.426394 -2.481308 193 175 134
-123.114088 38.426319 7.039945 217 213 186
-123.115205 38.426420 -1.134475 183 166 132
-123.115042 38.426392 -2.481067 210 191 150
-123.114104 38.426316 6.238062 197 184 147
-123.114078 38.426319 7.342853 181 168 132
-123.115154 38.426413 -0.857756 202 184 148
-123.114103 38.426316 6.548243 192 178 140
-123.115080 38.426404 -0.608643 195 181 147
-123.114691 38.426345 -2.398638 207 191 156
-123.114348 38.426308 -1.099506 192 167 128
-123.114180 38.426306 2.927904 183 180 149
-123.115223 38.426417 -1.121900 212 195 160
-123.115109 38.426399 -1.575510 196 180 146
-123.115086 38.426400 -0.868384 199 183 151
-123.114085 38.426322 8.893756 220 219 203
-123.115026 38.426384 -2.438834 194 177 140
-123.115086 38.426396 -0.956491 200 184 151
-123.115021 38.426380 -2.495434 190 173 136
-123.114093 38.426306 6.591471 172 164 129
-123.114456 38.426310 -1.573802 192 163 123
-123.114421 38.426306 -1.405929 202 178 139
-123.114129 38.426305 5.653852 163 155 95
-123.114083 38.426316 9.157160 212 214 199
-123.114491 38.426312 -1.479602 186 168 102
-123.115095 38.426392 -0.725210 200 186 155
-123.114103 38.426304 7.010622 225 224 193
-123.114329 38.426288 -1.225106 198 180 143
-123.115157 38.426400 -0.075904 207 191 158
-123.114094 38.426300 6.739666 201 200 177
-123.115149 38.426399 0.111968 209 193 159
-123.114996 38.426364 -3.010852 183 169 138
-123.115117 38.426394 0.223211 213 197 162
-123.114951 38.426357 -2.940695 184 168 134
-123.114891 38.426350 -2.829235 199 182 142
-123.114592 38.426317 -1.919798 197 165 103
-123.115098 38.426393 0.752182 186 170 133
-123.114097 38.427231 4.433421 235 227 175
-123.114121 38.427228 5.220280 227 218 161
-123.114179 38.427245 3.022518 233 225 187
-123.115028 38.427373 -0.000447 206 189 146
-123.115003 38.427373 -0.599528 216 197 151
-123.114805 38.427342 0.267593 223 206 162
-123.114926 38.427360 -0.228600 195 173 114
-123.114451 38.427286 1.719990 222 213 175
-123.114199 38.427243 3.550860 218 217 166
-123.115022 38.427370 -0.097512 199 183 138
-123.114967 38.427358 0.598699 180 208 104
-123.114272 38.427254 2.557700 214 206 156
-123.115019 38.427369 -0.402084 199 192 119
-123.115224 38.427385 0.855315 179 172 133
-123.114174 38.427228 4.168562 230 222 175
-123.114151 38.427229 3.247014 224 218 171
-123.115100 38.427372 -0.165362 213 196 134
-123.114872 38.427341 0.034607 193 177 135
-123.115151 38.427374 0.449677 210 201 166
-123.114386 38.427264 2.071715 225 217 175
-123.115354 38.427398 0.428410 176 162 114
-123.114204 38.427234 3.029531 210 210 132
-123.114658 38.427306 0.570937 213 193 136
-123.114357 38.427254 2.440965 228 218 170
-123.115231 38.427366 1.888233 190 176 131
-123.114740 38.427310 0.233581 209 190 153
-123.115266 38.427368 1.746394 180 165 116
-123.114667 38.427294 0.599125 210 190 143
-123.115138 38.427356 0.293880 198 185 141
-123.114392 38.427248 1.866569 225 214 171
-123.114570 38.427268 2.106846 225 216 175
-123.114416 38.427248 1.536195 233 220 186
-123.114616 38.427269 2.313070 206 201 160
-123.114247 38.427221 2.060068 217 214 156
-123.115314 38.427365 0.931391 188 182 133
-123.114216 38.427211 2.986585 197 204 137
-123.114328 38.427229 2.195142 220 216 157
-123.114360 38.427228 2.963913 220 214 165
-123.115252 38.427351 1.363220 181 170 123
-123.115241 38.427357 -0.111677 200 187 143
-123.115127 38.427345 -0.671665 204 191 143
-123.115028 38.427334 -1.160903 219 198 154
-123.114379 38.427233 1.657691 222 213 159
-123.115284 38.427352 1.190912 174 161 110
-123.114884 38.427307 -0.113442 216 198 157
-123.114614 38.427263 1.424627 200 193 154
-123.114530 38.427254 0.854342 212 205 157
-123.114569 38.427255 1.010940 208 209 156
-123.114211 38.427200 2.531217 208 213 153
-123.115301 38.427351 0.692912 191 181 146
-123.115047 38.427323 -0.143280 198 178 138
-123.114501 38.427244 1.092168 202 203 148
-123.114142 38.427192 2.228865 217 218 145
-123.114708 38.427274 0.348709 218 200 156
-123.114402 38.427228 1.477492 217 207 150
-123.115217 38.427341 0.188862 162 162 123
-123.115219 38.427338 0.500813 174 172 135
-123.114933 38.427304 -0.191554 216 199 153
-123.114790 38.427283 -0.032264 204 186 148
-123.115165 38.427331 -0.571075 146 147 86
-123.114652 38.427257 0.522487 221 207 165
-123.114283 38.427200 2.422970 227 227 157
-123.115345 38.427349 -0.126580 188 173 134
-123.115319 38.427338 1.103240 197 183 147
-123.115308 38.427337 1.146653 187 173 138
-123.114907 38.427290 -0.190545 218 202 161
-123.114195 38.427178 3.062982 217 218 173
-123.114646 38.427245 1.143012 215 199 151
-123.115175 38.427316 0.153164 149 151 102
-123.114646 38.427243 0.558975 222 208 162
-123.114524 38.427227 0.601070 192 193 132
-123.114261 38.427186 2.035889 218 215 163
-123.114707 38.427252 0.266976 205 187 144
-123.115318 38.427327 0.913096 189 180 134
-123.114597 38.427233 0.543198 207 201 142
-123.114535 38.427222 0.864914 221 223 145
-123.114224 38.427165 4.022516 223 221 179
-123.115281 38.427316 0.394176 170 160 118
-123.114151 38.427149 3.078751 228 224 188
-123.114706 38.427232 0.012458 200 183 127
-123.115238 38.427299 0.731125 201 187 147
-123.115336 38.427309 0.596285 163 165 103
-123.114982 38.427265 -0.497400 188 164 125
-123.115311 38.427297 1.295144 162 159 126
-123.114103 38.427122 5.025471 206 214 143
-123.114461 38.427183 1.208875 182 210 114
-123.114455 38.427183 1.117434 207 191 125
-123.114308 38.427160 1.904989 217 217 145
-123.114560 38.427192 0.954767 219 211 160
-123.114259 38.427142 2.788253 226 226 169
-123.114901 38.427239 -0.277499 200 179 137
-123.115315 38.427278 1.355950 160 159 99
-123.114558 38.427174 1.823587 199 189 148
-123.114284 38.427137 1.949202 205 211 138
-123.114142 38.427115 2.632403 231 229 178
-123.114634 38.427183 0.694024 225 220 188
-123.114625 38.427176 0.772044 234 232 215
-123.114777 38.427199 -0.181712 207 190 145
-123.114682 38.427183 0.023544 214 197 151
-123.115330 38.427266 -0.146325 208 190 148
-123.114347 38.427128 2.062895 215 220 141
-123.114285 38.427117 1.881461 215 216 150
-123.115232 38.427251 -0.756859 205 190 150
-123.114619 38.427164 0.672781 225 222 206
-123.114625 38.427163 0.706957 232 229 204
-123.114460 38.427136 1.609476 211 208 151
-123.114486 38.427137 1.718297 214 212 156
-123.114306 38.427112 2.219727 213 211 150
-123.114431 38.427130 1.601550 218 214 164
-123.114809 38.427187 -0.360875 207 187 138
-123.114551 38.427146 0.878363 201 194 157
-123.115336 38.427252 -0.157325 195 181 135
-123.115168 38.427233 -0.913490 207 189 152
-123.114387 38.427118 1.160746 215 213 166
-123.114604 38.427146 0.896859 212 206 166
-123.114485 38.427132 0.655816 195 195 120
-123.114260 38.427091 3.320235 212 229 141
-123.114913 38.427191 -0.427135 203 187 143
-123.114680 38.427154 0.196676 207 192 144
-123.114574 38.427136 1.006798 214 206 167
-123.115286 38.427231 0.569179 157 165 91
-123.114356 38.427099 2.612394 216 216 155
-123.114796 38.427167 -0.268757 200 184 141
-123.114672 38.427147 0.241281 218 201 157
-123.115247 38.427226 -1.301696 205 188 149
-123.114356 38.427090 2.756005 224 230 143
-123.114319 38.427087 2.058727 209 217 131
-123.114705 38.427143 -0.088590 207 190 146
-123.114895 38.427169 -0.478655 211 194 159
-123.115251 38.427209 -0.237478 190 178 136
-123.114278 38.427068 3.065445 211 223 147
-123.114882 38.427156 -0.544307 197 178 138
-123.114700 38.427129 -0.118830 210 194 150
-123.114668 38.427124 -0.091003 216 197 153
-123.114220 38.427056 1.788255 244 239 184
-123.114546 38.427102 0.577490 208 206 168
-123.114156 38.427034 4.807032 243 236 196
-123.114107 38.427028 4.345274 235 225 179
-123.114067 38.427027 2.821210 227 218 174
-123.114377 38.427069 2.206555 213 219 133
-123.114593 38.427103 0.081149 190 186 133
-123.114248 38.427043 3.166892 202 217 135
-123.114301 38.427053 1.386979 206 221 127
-123.114802 38.427124 -0.519925 202 185 139
-123.114213 38.427034 3.697323 216 227 151
-123.114304 38.427048 2.795670 212 229 129
-123.115005 38.427150 -0.707145 203 184 141
-123.114831 38.427128 -0.584923 202 185 147
-123.114266 38.427041 2.484749 226 237 158
-123.114298 38.427041 2.644413 237 242 164
-123.114349 38.427048 2.341603 215 225 120
-123.114094 38.427010 3.795698 237 230 190
-123.114069 38.427004 4.114522 225 216 177
-123.115246 38.427169 0.328598 196 179 132
-123.115263 38.427171 0.191404 182 171 120
-123.114398 38.427053 1.143925 223 216 169
-123.114920 38.427126 -0.500562 214 197 158
-123.114428 38.427054 1.496308 210 212 140
-123.114215 38.427020 3.738833 209 220 145
-123.114140 38.427014 2.133459 218 212 146
-123.114072 38.426998 4.103178 233 226 174
-123.114935 38.427125 -0.583084 213 198 163
-123.114579 38.427069 0.365376 215 208 160
-123.114887 38.427111 -0.676987 201 182 143
-123.114342 38.427032 1.775621 214 224 146
-123.114593 38.427069 0.192071 206 200 142
-123.114526 38.427059 0.626845 218 210 167
-123.114825 38.427101 -0.508259 202 185 146
-123.114726 38.427087 -0.326741 212 197 141
-123.114893 38.427107 -0.601464 203 183 145
-123.114266 38.427017 2.534390 212 223 149
-123.115040 38.427126 -0.787999 200 182 141
-123.114467 38.427046 1.314386 211 217 130
-123.115274 38.427155 -0.303554 190 175 133
-123.115257 38.427152 -0.875852 198 176 125
-123.114573 38.427057 0.400912 211 206 156
-123.114502 38.427046 0.576967 226 216 163
-123.114425 38.427035 0.632755 209 207 137
-123.114698 38.427071 -0.266834 201 188 139
-123.114940 38.427102 -0.636816 203 185 141
-123.115299 38.427143 0.708151 206 189 149
-123.114435 38.427026 1.797663 212 211 141
-123.115210 38.427133 -0.370113 168 163 123
-123.114855 38.427085 -0.507031 202 184 141
-123.114728 38.427069 -0.384566 206 189 147
-123.114585 38.427048 0.098649 190 189 118
-123.115303 38.427141 0.149934 199 184 142
-123.115070 38.427111 -1.054114 202 183 143
-123.114729 38.427064 -0.390237 210 194 149
-123.115003 38.427098 -0.755327 203 185 140
-123.114888 38.427083 -0.714881 217 205 169
-123.114853 38.427079 -0.743300 197 180 137
-123.115097 38.427108 -0.990288 202 183 144
-123.115265 38.427127 -0.245898 197 177 121
-123.115062 38.427102 -0.908476 193 177 142
-123.115055 38.427100 -0.954808 204 185 145
-123.114100 38.426962 3.633465 238 229 188
-123.115106 38.427108 -1.940709 210 194 158
-123.114816 38.427065 -0.337116 211 195 157
-123.115050 38.427096 -0.900196 207 190 154
-123.114514 38.427020 0.703815 211 205 154
-123.114465 38.427013 0.859360 198 206 139
-123.115205 38.427113 -0.490272 162 154 120
-123.114933 38.427077 -0.639522 203 187 149
-123.114993 38.427085 -0.824140 210 192 147
-123.114981 38.427082 -0.589915 199 182 141
-123.114444 38.427010 0.437736 219 229 136
-123.115167 38.427106 -1.093431 194 169 127
-123.115135 38.427101 -0.629689 205 183 140
-123.115144 38.427102 -1.115343 193 167 120
-123.114832 38.427060 -0.796283 210 194 155
-123.114145 38.426960 3.388195 230 229 176
-123.114420 38.427001 0.761956 212 218 138
-123.114286 38.426980 2.051387 217 222 146
-123.114123 38.426953 4.341727 218 221 140
-123.115302 38.427113 0.444992 200 182 137
-123.115227 38.427106 -0.741274 207 191 146
-123.115207 38.427104 -0.830594 201 188 143
-123.115180 38.427100 -0.898296 200 188 162
-123.115058 38.427084 -0.933911 196 179 143
-123.114628 38.427025 -0.175972 210 201 151
-123.114481 38.427004 0.585969 204 206 131
-123.114255 38.426971 2.270588 208 213 142
-123.114823 38.427051 -0.794350 210 191 149
-123.114938 38.427065 -0.719994 204 187 145
-123.114732 38.427037 -0.216926 200 185 142
-123.114610 38.427019 0.006666 189 182 125
-123.114143 38.426947 2.326889 233 227 183
-123.114115 38.426942 2.952807 207 217 148
-123.115178 38.427087 -0.957890 213 193 154
-123.114476 38.426991 0.415579 195 205 115
-123.114611 38.427009 -0.100697 220 205 156
-123.114676 38.427018 -0.338979 205 189 150
-123.114637 38.427012 -0.311290 202 188 140
-123.114971 38.427055 -0.718458 218 199 157
-123.114881 38.427041 -0.476940 216 201 160
-123.114104 38.426932 3.258403 242 232 193
-123.114114 38.426937 1.552553 215 211 163
-123.114904 38.427042 -0.483387 210 192 154
-123.115263 38.427089 -0.473448 188 173 127
-123.115219 38.427082 -0.188051 214 196 158
-123.115283 38.427090 -0.320303 204 188 148
-123.115252 38.427087 -0.386044 204 186 150
-123.114444 38.426976 0.874485 213 214 148
-123.114094 38.426928 2.215009 219 216 169
-123.115032 38.427055 -0.550138 195 173 121
-123.114360 38.426962 1.646145 225 222 166
-123.114367 38.426962 0.911339 222 225 154
-123.115076 38.427058 -0.956323 217 199 161
-123.114485 38.426977 0.697638 208 207 109
-123.115262 38.427080 -0.142655 190 175 137
-123.115114 38.427062 -1.220910 208 192 153
-123.114129 38.426922 4.154358 221 212 164
-123.115147 38.427063 -0.042603 190 172 131
-123.114760 38.427012 -0.356259 208 190 148
-123.114589 38.426988 0.005355 209 198 152
-123.115308 38.427080 0.376877 199 181 142
-123.114941 38.427034 -0.676849 206 193 157
-123.114621 38.426989 -0.158217 202 194 139
-123.114727 38.427003 -0.642838 219 204 150
-123.114911 38.427027 -0.824750 212 200 165
-123.114768 38.427007 -0.465375 212 194 151
-123.115087 38.427050 -1.244569 210 193 155
-123.114285 38.426940 1.319319 211 213 157
-123.115025 38.427040 -0.559890 206 184 134
-123.114973 38.427033 -0.777093 205 190 153
-123.114780 38.427010 -1.587208 216 200 153
-123.114523 38.426972 0.611968 211 207 132
-123.115169 38.427054 0.237660 220 201 156
-123.114872 38.427016 -0.840121 213 197 158
-123.114123 38.426910 3.496234 219 217 162
-123.115273 38.427065 0.178800 214 200 167
-123.115055 38.427039 -0.694349 191 163 116
-123.114684 38.426990 -0.524267 220 204 165
-123.114078 38.426904 3.257735 207 206 135
-123.114064 38.426904 1.797896 202 205 129
-123.114664 38.426986 -0.318900 217 202 161
-123.115086 38.427041 -1.643869 198 173 121
-123.114661 38.426982 -0.288124 219 204 165
-123.114875 38.427009 -0.919280 214 195 153
-123.114585 38.426970 -0.248156 219 206 144
-123.114419 38.426946 1.221920 206 208 115
-123.115032 38.427028 -0.616729 202 176 113
-123.114478 38.426952 0.194000 207 202 139
-123.114254 38.426918 3.248005 211 220 156
-123.115190 38.427046 -0.869591 213 199 155
-123.115043 38.427027 -0.770582 207 184 126
-123.114724 38.426982 -0.630265 198 183 138
-123.114604 38.426963 -0.239561 210 193 133
-123.114891 38.427000 -0.918387 210 192 154
-123.115280 38.427048 0.099078 207 194 156
-123.115106 38.427026 -0.885225 203 183 140
-123.114492 38.426944 0.004814 212 207 128
-123.115187 38.427035 -0.579008 215 198 156
-123.114946 38.427003 -0.773795 206 193 145
-123.115124 38.427025 -0.306742 210 195 160
-123.115272 38.427043 -0.155109 213 197 158
-123.115198 38.427033 -0.102944 207 189 152
-123.114266 38.426908 2.120430 210 226 149
-123.114438 38.426932 0.449637 209 205 124
-123.114448 38.426931 0.519858 206 202 127
-123.114163 38.426889 2.969162 230 233 180
-123.114622 38.426953 -0.326369 208 193 141
-123.115285 38.427040 -0.493627 212 194 152
-123.115136 38.427019 0.228130 212 193 154
-123.114980 38.427000 -0.283769 136 149 75
-123.115296 38.427040 -0.012559 203 184 145
-123.115162 38.427023 -0.429185 200 182 134
-123.115053 38.427009 -0.765363 201 176 117
-123.114953 38.426996 -0.938154 222 203 150
-123.114331 38.426911 1.717329 222 222 166
-123.114141 38.426885 2.886079 210 206 155
-123.115186 38.427022 -0.146745 222 207 174
-123.115308 38.427037 -0.395024 212 195 156
-123.114307 38.426901 1.263350 210 212 135
-123.114852 38.426975 -0.998351 194 180 132
-123.115172 38.427012 0.055525 216 196 159
-123.114744 38.426958 -0.764080 194 178 129
-123.114622 38.426941 -0.366271 216 205 147
-123.115173 38.427010 -0.725354 208 191 159
-123.115143 38.427007 -1.342876 221 204 162
-123.114411 38.426909 0.493384 216 209 138
-123.114566 38.426930 -0.533495 221 208 149
-123.114419 38.426908 0.925308 222 214 153
-123.114536 38.426924 -0.171287 220 209 151
-123.114974 38.426981 -0.931893 208 185 132
-123.114771 38.426954 -0.832482 201 183 130
-123.114598 38.426931 -0.332415 223 212 154
-123.115284 38.427017 0.255476 214 194 154
-123.114274 38.426884 0.977287 211 213 164
-123.115083 38.426989 -0.209900 207 189 151
-123.114976 38.426976 -1.053991 208 190 142
-123.114162 38.426866 1.745236 208 209 139
-123.114157 38.426864 2.034271 201 204 130
-123.115019 38.426978 -0.574076 177 171 125
-123.114499 38.426910 -0.152978 217 203 147
-123.115092 38.426987 -0.753406 193 178 137
-123.115216 38.427003 -0.452779 212 195 156
-123.114553 38.426917 -0.737367 223 211 157
-123.114572 38.426917 -0.223831 216 202 151
-123.114847 38.426953 -1.044738 213 194 151
-123.115061 38.426980 -1.120054 213 196 163
-123.115186 38.426994 0.292901 207 189 151
-123.114146 38.426857 1.842777 207 208 137
-123.114669 38.426926 -0.616284 189 174 126
-123.114838 38.426949 -0.938885 203 186 146
-123.115204 38.426994 0.073940 208 190 144
-123.114877 38.426952 -0.547473 201 183 139
-123.114986 38.426966 -0.904404 209 193 150
-123.114563 38.426911 -0.292008 216 200 143
-123.115304 38.427006 -0.096435 212 193 154
-123.114197 38.426859 1.872728 212 210 153
-123.115080 38.426978 -2.191093 194 175 140
-123.114785 38.426937 -0.820184 204 187 144
-123.115165 38.426986 -1.015469 212 194 150
-123.115033 38.426969 -1.312946 199 185 146
-123.114055 38.426836 3.277752 225 219 171
-123.114583 38.426907 -0.346606 214 200 147
-123.114518 38.426895 -0.193602 215 198 145
-123.114125 38.426840 2.564917 205 207 131
-123.115185 38.426977 -0.435556 217 200 161
-123.115011 38.426953 -1.079449 206 188 149
-123.114091 38.426829 3.050600 202 196 123
-123.114662 38.426906 -0.667443 222 206 161
-123.115208 38.426974 0.175639 212 198 160
-123.114951 38.426942 -0.986052 209 189 147
-123.115103 38.426960 -0.578998 209 192 153
-123.114678 38.426904 -0.307261 203 187 139
-123.114513 38.426883 -0.312046 223 207 151
-123.114330 38.426858 0.421629 213 202 140
-123.114758 38.426914 -0.921425 211 192 147
-123.114180 38.426837 1.758758 221 215 161
-123.115204 38.426972 -0.321812 214 198 160
-123.114882 38.426930 -1.095299 204 186 147
-123.114708 38.426907 -0.794095 207 189 140
-123.115237 38.426975 -0.126006 214 197 159
-123.114804 38.426919 -0.992462 194 177 131
-123.115024 38.426946 -1.048113 208 189 153
-123.114561 38.426885 -0.442573 220 205 161
-123.114740 38.426907 -0.876992 201 182 131
-123.114508 38.426875 -0.177941 224 207 150
-123.114084 38.426819 1.550010 226 217 178
-123.114357 38.426855 0.238772 213 204 143
-123.114190 38.426833 1.243786 204 204 133
-123.114463 38.426867 -0.115718 227 211 156
-123.114379 38.426855 0.344443 216 201 145
-123.114421 38.426860 0.005089 205 189 135
-123.115298 38.426973 -0.473964 203 186 151
-123.114242 38.426834 1.596116 211 207 141
-123.114291 38.426840 1.296079 226 219 171
-123.114679 38.426890 -0.844315 208 191 146
-123.115217 38.426960 -0.489486 205 190 152
-123.114337 38.426845 0.193429 225 213 157
-123.114944 38.426923 -0.945238 213 197 163
-123.114746 38.426897 -0.798791 213 194 147
-123.114752 38.426894 -0.901158 214 196 150
-123.114231 38.426824 1.286303 213 207 153
-123.114196 38.426819 1.845402 212 205 152
-123.115151 38.426944 0.150835 220 199 161
-123.115150 38.426944 -0.466132 219 200 163
-123.115130 38.426939 -0.136169 212 196 153
-123.114947 38.426915 -1.009598 210 192 158
-123.115111 38.426934 -0.653556 212 193 148
-123.114971 38.426916 -1.169384 208 193 156
-123.114422 38.426844 0.094268 219 202 155
-123.114175 38.426810 1.509384 202 206 130
-123.114143 38.426806 1.594780 212 206 150
-123.114538 38.426858 -0.574622 211 195 153
-123.115226 38.426945 -0.582458 197 176 135
-123.114290 38.426823 0.997302 220 211 155
-123.114105 38.426797 2.411041 190 191 122
-123.114645 38.426869 -0.289380 214 201 164
-123.114595 38.426862 -0.560334 206 189 141
-123.114525 38.426853 -0.345094 219 205 155
-123.114070 38.426791 1.825624 213 207 132
-123.114501 38.426847 -0.102129 207 192 139
-123.114313 38.426822 0.335029 225 213 152
-123.114187 38.426803 1.596368 207 199 131
-123.114886 38.426894 -0.737527 216 196 155
-123.115091 38.426920 -0.782990 206 185 142
-123.114548 38.426849 -0.463383 226 210 166
-123.114821 38.426884 -1.026433 205 188 151
-123.114816 38.426882 -0.919801 203 185 146
-123.114837 38.426883 -1.085141 209 192 153
-123.115110 38.426918 -0.741850 209 189 145
-123.114977 38.426900 -1.119779 212 197 161
-123.114684 38.426861 -0.868790 204 189 147
-123.115291 38.426939 0.176073 209 192 155
-123.115237 38.426932 -0.858374 192 172 130
-123.115107 38.426913 -0.503362 214 195 153
-123.114381 38.426819 -0.181476 217 201 149
-123.115171 38.426921 0.102590 203 185 148
-123.115045 38.426904 -1.146714 206 190 152
-123.115098 38.426909 -0.320616 204 190 154
-123.114505 38.426832 -0.264853 221 206 159
-123.115230 38.426925 -0.023895 204 182 140
-123.115135 38.426912 -0.970346 210 194 155
-123.114854 38.426876 -1.100834 198 180 135
-123.115056 38.426901 -1.302407 209 196 166
-123.115104 38.426906 0.030805 210 192 151
-123.114767 38.426863 -0.707631 210 192 151
-123.114122 38.426778 2.068719 204 201 128
-123.114619 38.426843 -0.658224 215 197 143
-123.115199 38.426917 -0.358882 216 198 159
-123.114992 38.426890 -1.131325 195 181 147
-123.114647 38.426845 -0.618404 195 179 137
-123.114976 38.426885 -1.065694 204 190 155
-123.114700 38.426849 -0.939976 207 189 146
-123.115258 38.426920 0.053366 210 190 151
-123.115102 38.426899 -0.400846 206 189 145
-123.114795 38.426859 -0.754141 218 202 162
-123.114681 38.426845 -0.942458 217 199 156
-123.114469 38.426816 -0.495481 210 196 162
-123.115249 38.426916 0.064538 210 189 149
-123.115287 38.426920 0.340695 212 196 159
-123.115257 38.426916 1.049043 210 190 153
-123.114486 38.426817 -0.300945 221 203 158
-123.115164 38.426904 -0.702127 204 187 149
-123.115027 38.426886 -1.204583 199 181 142
-123.114329 38.426795 0.327469 208 189 134
-123.114721 38.426844 -1.091549 206 189 144
-123.114554 38.426822 -0.328316 211 191 145
-123.114279 38.426786 0.351775 239 225 174
-123.114268 38.426785 0.653665 227 215 153
-123.114323 38.426792 0.192003 231 212 159
-123.114611 38.426825 -0.757950 210 193 152
-123.114328 38.426789 -0.456433 222 199 148
-123.114314 38.426784 0.406354 218 200 145
-123.114774 38.426841 -0.920908 217 197 154
-123.115220 38.426897 -0.150922 205 186 146
-123.115026 38.426871 -1.314502 205 188 146
-123.115244 38.426898 0.240620 215 197 157
-123.115155 38.426886 -1.136966 204 188 150
-123.115041 38.426870 -0.110641 207 189 151
-123.114293 38.426773 0.227190 228 211 159
-123.115226 38.426892 0.689976 218 201 164
-123.114978 38.426860 -1.112674 202 187 151
-123.114756 38.426831 -1.050531 209 193 153
-123.115244 38.426893 0.341826 209 192 157
-123.114536 38.426802 -0.536593 211 193 148
-123.114742 38.426828 -0.790115 215 196 154
-123.114055 38.426738 2.153282 208 200 147
-123.114756 38.426827 -1.062528 207 188 147
-123.114081 38.426739 2.210723 199 195 126
-123.115250 38.426888 0.041058 195 177 135
-123.114478 38.426787 -0.505397 219 201 159
-123.115179 38.426876 -0.640476 208 190 153
-123.114984 38.426851 -1.180011 204 187 145
-123.114740 38.426819 -1.041964 219 199 151
-123.115194 38.426876 -0.791117 214 199 156
-123.114501 38.426787 -0.490569 217 198 152
-123.114865 38.426833 -1.216734 201 183 136
-123.115049 38.426854 -1.161260 203 186 147
-123.114976 38.426845 -1.082560 208 192 152
-123.115197 38.426873 0.338823 213 198 163
-123.115097 38.426860 0.315852 193 176 140
-123.114893 38.426834 -1.320261 210 192 155
-123.114996 38.426846 -1.123842 208 193 158
-123.114401 38.426768 -0.037474 211 196 145
-123.114770 38.426814 -1.329871 217 198 154
-123.115002 38.426845 -1.193708 204 185 144
-123.115032 38.426843 -1.047352 197 181 145
-123.114766 38.426809 -0.844350 216 197 156
-123.114442 38.426766 -0.368141 228 210 161
-123.115070 38.426847 -1.000947 210 190 147
-123.115249 38.426867 0.326850 201 183 142
-123.114512 38.426773 -0.643054 206 186 138
-123.114161 38.426727 2.031545 195 198 117
-123.115173 38.426855 -0.611016 214 197 154
-123.114028 38.426707 1.428347 220 207 143
-123.114691 38.426792 -1.096956 214 192 145
-123.114105 38.426716 2.146475 185 196 111
-123.115206 38.426856 -0.858377 199 178 136
-123.114798 38.426803 -1.266239 209 191 148
-123.114932 38.426820 -1.152897 214 198 160
-123.115035 38.426832 -1.146397 203 185 146
-123.114124 38.426715 1.585695 188 202 111
-123.114591 38.426773 -0.797403 212 194 153
-123.114661 38.426782 -0.996590 223 203 150
-123.114291 38.426734 0.146159 227 213 169
-123.114643 38.426778 -0.891500 223 204 156
-123.114475 38.426756 -0.406347 213 195 150
-123.114339 38.426738 -0.012181 227 210 161
-123.115102 38.426835 -1.120277 195 177 140
-123.114324 38.426734 -0.244090 216 196 152
-123.114394 38.426743 -0.331325 231 217 165
-123.114238 38.426721 0.381375 218 204 146
-123.114665 38.426776 -0.969323 212 192 149
-123.115000 38.426817 -1.267248 209 189 147
-123.114816 38.426793 -1.278828 209 191 147
-123.114209 38.426716 0.877666 197 188 126
-123.114942 38.426809 -1.131193 210 190 149
-123.114305 38.426726 0.195691 226 208 161
-123.114164 38.426709 2.076816 201 198 131
-123.114631 38.426766 -0.944683 220 199 153
-123.114574 38.426758 -0.869555 216 201 163
-123.114852 38.426793 -1.424642 211 190 144
-123.114117 38.426698 0.999283 208 195 146
-123.114145 38.426699 1.359036 198 182 130
-123.115256 38.426841 0.500234 202 184 148
-123.115174 38.426829 -1.004743 211 191 146
-123.114112 38.426692 1.445486 225 208 158
-123.114274 38.426711 0.066528 224 207 157
-123.114941 38.426797 -1.025766 215 198 157
-123.114890 38.426790 -1.584461 214 197 161
-123.114814 38.426780 -1.330162 217 197 154
-123.114725 38.426769 -1.162325 211 192 151
-123.114873 38.426786 -1.506726 206 188 148
-123.115225 38.426831 0.331486 213 192 152
-123.115053 38.426808 -1.611596 191 171 134
-123.114225 38.426702 0.723540 214 194 148
-123.115265 38.426836 0.235093 211 192 148
-123.114627 38.426753 -0.923455 213 193 150
-123.115177 38.426822 -0.814507 208 187 139
-123.114290 38.426708 0.181593 228 211 165
-123.114981 38.426796 -1.180820 203 182 140
-123.114919 38.426788 -1.534410 201 183 143
-123.115157 38.426817 -1.906258 201 186 151
-123.114869 38.426781 -1.412109 219 199 152
-123.115252 38.426829 -0.125799 208 189 139
-123.114614 38.426745 -0.994125 207 191 151
-123.114916 38.426782 -1.192631 202 185 142
-123.114571 38.426737 -0.870879 215 200 158
-123.114444 38.426719 -0.581817 209 192 150
-123.114893 38.426776 -1.618533 216 198 158
-123.114098 38.426675 1.455845 217 206 144
-123.114735 38.426755 -1.123844 199 186 147
-123.114645 38.426743 -1.078292 206 186 144
-123.115237 38.426819 -0.230724 215 194 152
-123.114966 38.426783 -1.203437 208 192 147
-123.115257 38.426821 -0.445549 198 177 133
-123.114619 38.426737 -1.147659 215 198 158
-123.115189 38.426810 -1.389580 210 191 153
-123.114479 38.426719 -0.582746 207 188 149
-123.114053 38.426665 1.382221 212 194 150
-123.114527 38.426724 -0.789420 204 186 145
-123.114214 38.426684 0.742478 220 201 160
-123.114295 38.426694 0.255754 217 200 161
-123.114125 38.426670 0.873842 226 206 157
-123.115207 38.426807 -0.529855 208 188 145
-123.114315 38.426692 0.119050 219 199 155
-123.114098 38.426663 1.344503 226 211 166
-123.115235 38.426807 -0.886681 216 198 160
-123.114909 38.426763 -1.356192 207 188 148
-123.114219 38.426673 0.832869 217 200 161
-123.115056 38.426778 -1.630150 203 182 140
-123.114685 38.426730 -1.053635 202 184 145
-123.114652 38.426726 -1.059198 191 171 127
-123.114429 38.426698 -0.480689 203 188 153
-123.114025 38.426647 2.172899 220 202 157
-123.115228 38.426797 -1.191449 212 192 145
-123.114637 38.426721 -1.138462 204 185 145
-123.114048 38.426647 1.783156 228 211 162
-123.114528 38.426705 -1.028563 189 173 135
-123.114191 38.426663 0.942395 216 198 154
-123.115277 38.426797 -1.145397 213 193 152
-123.114762 38.426731 -1.444109 209 190 151
-123.114237 38.426663 0.745582 202 181 135
-123.114847 38.426739 -1.656285 218 199 158
-123.114832 38.426736 -1.566242 216 198 158
-123.114644 38.426712 -0.950993 207 188 148
-123.114068 38.426640 1.107019 223 206 162
-123.115006 38.426758 -1.748222 199 175 133
-123.114560 38.426700 -0.972243 209 188 151
-123.114718 38.426718 -1.099085 206 187 146
-123.114420 38.426680 -0.554331 209 191 154
-123.114858 38.426734 -1.590788 209 191 149
-123.114505 38.426689 -0.924816 206 189 153
-123.114108 38.426638 1.303603 227 210 172
-123.114620 38.426701 -1.079813 203 184 143
-123.114796 38.426721 -1.489238 205 184 137
-123.114482 38.426680 -0.818681 216 201 167
-123.115204 38.426771 -0.913608 210 187 149
-123.114642 38.426699 -1.157098 207 187 149
-123.114354 38.426663 -0.062221 218 193 146
-123.114249 38.426649 0.618536 199 173 130
-123.114076 38.426627 1.626025 215 198 154
-123.114244 38.426647 0.667633 193 167 126
-123.114133 38.426633 1.154628 226 209 173
-123.115059 38.426749 -0.807567 199 191 151
-123.115025 38.426743 -1.126104 198 166 125
-123.114429 38.426667 -0.558830 219 200 163
-123.114163 38.426635 1.105557 212 194 161
-123.114864 38.426720 -1.654431 220 199 157
-123.114821 38.426715 -1.216612 203 184 144
-123.115048 38.426742 -1.529958 202 179 139
-123.114535 38.426677 -0.886814 216 199 164
-123.114313 38.426650 0.229437 202 178 135
-123.115246 38.426767 -1.454780 196 178 132
-123.114851 38.426715 -1.552726 209 189 148
-123.114106 38.426622 1.404431 220 199 161
-123.114869 38.426716 -1.791896 214 193 153
-123.114539 38.426675 -0.879072 208 188 148
-123.114080 38.426617 1.676616 214 195 149
-123.114627 38.426684 -1.175907 213 193 153
-123.114231 38.426634 0.768318 200 178 135
-123.114772 38.426701 -1.463902 202 186 144
-123.115202 38.426754 -0.746042 203 184 148
-123.114982 38.426724 -1.646391 206 184 141
-123.115239 38.426757 -0.931444 194 175 124
-123.114495 38.426661 -0.866921 221 202 161
-123.115037 38.426729 -1.163036 202 168 123
-123.114435 38.426653 -0.473231 201 175 135
-123.114170 38.426620 1.031483 220 204 169
-123.115003 38.426724 -1.653885 205 185 142
-123.114995 38.426722 -1.609976 201 180 137
-123.114256 38.426631 0.546853 220 201 163
-123.115110 38.426737 -1.523930 211 190 144
-123.115233 38.426751 -1.030523 209 192 146
-123.114469 38.426654 -0.896293 190 171 133
-123.114195 38.426620 0.799196 192 173 136
-123.114267 38.426628 0.501679 215 196 159
-123.114423 38.426646 -0.514291 198 176 134
-123.114907 38.426705 -1.980644 211 192 154
-123.114899 38.426704 -2.090105 226 207 167
-123.114921 38.426707 -1.691891 205 187 148
-123.114516 38.426655 -0.927544 207 190 155
-123.114653 38.426671 -1.225097 199 181 141
-123.114540 38.426656 -0.883322 205 188 153
-123.114760 38.426683 -1.193695 204 190 151
-123.114071 38.426597 1.860477 224 206 160
-123.114880 38.426694 -1.984028 229 210 164
-123.114703 38.426673 -1.388196 202 184 140
-123.114634 38.426665 -1.312541 210 192 153
-123.114199 38.426608 0.831228 207 180 139
-123.114725 38.426672 -1.490314 203 184 138
-123.114745 38.426673 -1.188952 189 172 129
-123.115264 38.426739 -0.833600 221 204 157
-123.114426 38.426631 -0.579960 202 182 147
-123.114036 38.426585 2.506526 226 216 184
-123.114555 38.426645 -1.186187 193 174 135
-123.115018 38.426703 -1.631925 215 191 140
-123.114926 38.426691 -1.559446 215 193 149
-123.114025 38.426580 3.097810 225 221 202
-123.115004 38.426698 -1.593219 215 195 145
-123.114481 38.426632 -0.861486 203 180 141
-123.115150 38.426715 -1.772720 205 187 147
-123.114547 38.426639 -1.134482 190 173 135
-123.115165 38.426715 -1.744448 201 184 149
-123.114352 38.426613 -0.017399 209 189 152
-123.114277 38.426603 0.260161 200 178 143
-123.114185 38.426592 0.999234 200 175 125
-123.114053 38.426576 2.320656 202 193 161
-123.114080 38.426578 2.004676 214 196 157
-123.114848 38.426669 -1.784249 192 172 131
-123.115220 38.426716 -1.422882 220 203 163
-123.114756 38.426658 -1.280849 214 199 163
-123.114331 38.426605 -0.022660 220 200 161
-123.115262 38.426721 -0.890256 207 184 138
-123.114930 38.426678 -1.607445 205 181 139
-123.114651 38.426642 -1.372907 203 183 145
-123.114280 38.426596 0.268607 198 176 136
-123.114778 38.426657 -1.510772 218 196 153
-123.114539 38.426627 -0.945351 194 172 134
-123.114041 38.426569 3.095316 212 210 184
-123.115024 38.426686 -1.706079 212 192 152
-123.114449 38.426614 -0.638597 206 186 149
-123.115246 38.426713 -1.734968 211 190 148
-123.115154 38.426703 -0.955395 202 185 148
-123.114858 38.426663 -1.558153 191 177 124
-123.114172 38.426578 1.052620 192 165 122
-123.115233 38.426709 -1.463665 218 198 144
-123.115057 38.426686 -1.880493 203 184 143
-123.115271 38.426711 -1.142157 199 178 138
-123.114976 38.426671 -1.457427 205 183 139
-123.114931 38.426665 -1.539061 199 173 128
-123.114596 38.426622 -1.163786 193 176 140
-123.114607 38.426621 -1.371625 208 191 157
-123.114711 38.426633 -1.589373 200 182 143
-123.114322 38.426586 0.265503 206 191 158
-123.115048 38.426675 -1.629536 202 181 139
-123.114884 38.426653 -1.779530 207 182 141
-123.114756 38.426634 -1.782602 225 207 168
-123.114296 38.426579 0.327198 215 194 152
-123.114405 38.426590 -0.502606 201 187 152
-123.114993 38.426663 -1.516552 194 170 125
-123.114034 38.426549 3.390663 188 182 160
-123.114258 38.426572 0.620381 186 177 128
-123.114177 38.426561 1.113853 189 161 108
-123.114044 38.426548 3.399785 205 203 181
-123.115015 38.426662 -1.760174 200 178 133
-123.114220 38.426565 0.772748 209 186 146
-123.114231 38.426566 0.664990 180 152 109
-123.114654 38.426614 -1.608304 199 182 147
-123.115234 38.426688 -0.531678 209 194 160
-123.114490 38.426592 -1.069990 193 173 134
-123.114237 38.426563 0.679022 179 155 112
-123.114896 38.426640 -1.686350 194 167 119
-123.115158 38.426669 -2.293209 205 187 153
-123.114608 38.426599 -1.455405 204 186 152
-123.114272 38.426559 0.326924 210 192 152
-123.114258 38.426557 0.487609 211 191 152
-123.115098 38.426661 -0.653334 185 169 125
-123.115022 38.426648 -1.800850 217 195 149
-123.114919 38.426635 -1.736969 198 170 122
-123.114712 38.426609 -1.546222 195 177 139
-123.114115 38.426542 2.909780 181 181 126
-123.114234 38.426551 0.622390 220 203 167
-123.115122 38.426661 -1.238825 214 196 161
-123.115010 38.426644 -1.758713 199 177 135
-123.114934 38.426635 -1.734169 207 179 108
-123.114091 38.426537 3.000567 198 178 137
-123.114085 38.426536 3.053535 197 184 142
-123.115218 38.426670 -1.363782 208 191 154
-123.114629 38.426591 -1.644416 210 190 153
-123.115210 38.426666 -0.494745 194 178 144
-123.114622 38.426589 -1.615062 215 195 156
-123.115239 38.426672 0.435673 211 196 162
-123.114556 38.426577 -1.358321 208 191 156
-123.115232 38.426662 -1.013163 204 189 152
-123.114486 38.426567 -0.859528 210 189 150
-123.114076 38.426522 4.253026 228 226 202
-123.114724 38.426590 -1.694321 194 175 135
-123.114825 38.426601 -1.967265 201 183 147
-123.114279 38.426535 0.209221 194 173 133
-123.114796 38.426596 -1.737866 197 180 143
-123.114911 38.426609 -1.895905 196 172 121
-123.114172 38.426522 1.519597 229 225 202
-123.115189 38.426646 -0.960522 211 190 151
-123.114288 38.426531 0.142839 175 151 112
-123.115043 38.426621 -1.907192 211 188 142
-123.114814 38.426592 -1.817882 192 176 142
-123.114467 38.426549 -0.777430 209 186 145
-123.114725 38.426580 -1.725124 183 160 115
-123.114255 38.426523 0.318387 191 171 133
-123.114888 38.426596 -1.982404 202 183 143
-123.114759 38.426578 -1.859608 194 176 136
-123.114091 38.426507 4.544580 198 185 132
-123.115067 38.426619 -0.689834 202 184 145
-123.114112 38.426509 4.220557 216 213 191
-123.115248 38.426640 -0.921207 205 190 156
-123.114351 38.426527 -0.246236 216 196 154
-123.115021 38.426608 -2.009519 206 187 149
-123.114835 38.426585 -2.009856 176 155 113
-123.114449 38.426536 -0.867822 209 186 145
-123.114793 38.426577 -1.920767 198 179 142
-123.114545 38.426547 -1.248282 185 163 120
-123.115184 38.426628 -0.918192 204 189 157
-123.114102 38.426504 4.638958 188 173 132
-123.115179 38.426625 -1.306498 206 190 158
-123.115189 38.426622 -1.303439 206 191 158
-123.114649 38.426553 -1.460302 190 164 107
-123.114378 38.426521 -0.285521 199 177 138
-123.114963 38.426590 -2.370559 202 181 132
-123.115196 38.426621 -1.220951 201 185 151
-123.114834 38.426573 -2.138160 178 161 121
-123.114150 38.426500 3.558598 242 242 225
-123.114706 38.426557 -1.559664 187 168 100
-123.114829 38.426568 -2.156732 199 183 149
-123.114289 38.426505 0.035004 205 185 147
-123.114878 38.426574 -2.193096 207 188 144
-123.114233 38.426501 1.617174 242 242 228
-123.115093 38.426601 -1.789531 192 178 144
-123.114540 38.426530 -1.295554 191 172 126
-123.115079 38.426598 -1.227502 202 187 154
-123.114991 38.426580 -2.040782 201 185 150
-123.114663 38.426539 -1.686619 194 170 115
-123.114793 38.426553 -1.921848 200 183 143
-123.114289 38.426493 -0.173977 202 182 144
-123.114153 38.426485 3.305449 197 183 141
-123.114257 38.426489 0.226896 223 219 200
-123.114352 38.426496 -0.430096 205 189 154
-123.114177 38.426482 2.613776 217 211 183
-123.114149 38.426481 3.590918 212 200 164
-123.114797 38.426544 -1.903857 203 183 143
-123.114090 38.426477 6.319719 212 198 153
-123.114279 38.426481 -0.187429 196 176 138
-123.114780 38.426540 -2.001603 191 173 134
-123.114297 38.426483 -0.134464 191 169 132
-123.114426 38.426497 -0.649549 189 170 132
-123.114204 38.426476 1.856434 236 235 217
-123.114125 38.426476 5.122094 179 178 129
-123.115253 38.426602 -0.694502 207 191 155
-123.114482 38.426503 -0.701735 173 176 111
-123.114186 38.426474 2.349823 220 212 179
-123.114192 38.426472 2.145886 202 203 149
-123.114266 38.426474 -0.048572 208 190 151
-123.114346 38.426482 -0.374462 212 193 156
-123.114125 38.426471 5.295727 182 177 127
-123.114206 38.426471 1.751258 231 226 199
-123.115202 38.426589 -0.715077 195 180 144
-123.114435 38.426493 -0.173602 127 134 85
-123.115178 38.426582 -2.007586 198 184 153
-123.114698 38.426522 -1.495630 192 175 105
-123.114492 38.426496 -1.096773 188 172 131
-123.114818 38.426533 -2.041981 198 183 149
-123.114287 38.426469 -0.229479 215 196 156
-123.114802 38.426530 -1.960335 198 179 140
-123.114630 38.426507 -1.471825 174 161 88
-123.115228 38.426586 -0.219507 199 185 153
-123.114787 38.426524 -2.028317 195 180 146
-123.115096 38.426564 -1.115599 204 188 152
-123.114843 38.426527 -2.143353 180 165 130
-123.114184 38.426458 3.110527 228 227 203
-123.114648 38.426504 -1.043394 146 159 78
-123.114878 38.426528 -2.290032 196 177 139
-123.114140 38.426457 5.291737 187 179 124
-123.114325 38.426462 -0.233314 212 192 152
-123.114289 38.426458 -0.287968 202 181 138
-123.114283 38.426457 -0.266641 176 157 117
-123.115015 38.426544 -2.207099 202 185 149
-123.114624 38.426496 -1.365628 185 165 101
-123.114579 38.426488 -1.426167 195 177 141
-123.114371 38.426463 -0.717063 199 179 142
-123.114849 38.426519 -2.177691 192 176 142
-123.114296 38.426454 -0.320882 211 192 150
-123.114698 38.426500 -1.838964 184 164 103
-123.114495 38.426477 -1.050951 185 168 133
-123.114218 38.426448 1.350776 226 224 194
-123.114957 38.426525 -2.396508 208 186 137
-123.114303 38.426448 -0.447083 209 188 149
-123.114185 38.426446 3.528468 249 250 238
-123.114103 38.426446 7.134669 181 178 132
-123.115053 38.426540 -0.923308 207 191 158
-123.114190 38.426444 3.685125 251 251 240
-123.114076 38.426448 9.265065 178 167 129
-123.114291 38.426443 -0.255234 180 161 120
-123.114121 38.426442 6.416214 177 168 116
-123.115199 38.426552 -1.543872 200 185 151
-123.115078 38.426539 -0.785556 206 191 159
-123.114071 38.426442 8.685615 187 179 132
-123.114719 38.426489 -1.657470 184 162 99
-123.114086 38.426439 8.039719 164 158 115
-123.114549 38.426464 -1.420595 181 162 118
-123.114513 38.426457 -1.327169 196 178 140
-123.114343 38.426436 -0.670212 199 178 134
-123.114163 38.426432 4.602930 187 189 128
-123.114355 38.426440 0.288984 156 165 118
-123.115248 38.426539 -3.674144 204 190 156
-123.114202 38.426425 1.976156 220 221 192
-123.114973 38.426508 -2.493541 194 173 121
-123.114579 38.426460 -1.607424 174 154 107
-123.114322 38.426430 -0.588145 211 190 152
-123.114195 38.426425 2.513944 217 216 198
-123.114118 38.426427 6.528856 225 221 192
-123.114082 38.426427 8.398588 183 174 143
-123.115251 38.426539 -1.880982 198 182 147
-123.114344 38.426428 -0.592961 195 172 115
-123.115218 38.426533 -1.994983 205 190 151
-123.115133 38.426523 -1.804131 197 179 140
-123.114315 38.426423 -0.503691 213 192 155
-123.114464 38.426443 -0.101709 161 175 133
-123.115150 38.426524 -1.732074 204 184 141
-123.114981 38.426500 -2.479895 201 178 135
-123.114082 38.426422 8.139969 190 190 172
-123.114672 38.426460 -1.792067 176 155 100
-123.114209 38.426412 1.690774 183 168 135
-123.114913 38.426486 -2.543637 190 174 140
-123.114366 38.426421 -0.865158 214 194 149
-123.114309 38.426413 -0.500107 218 199 156
-123.114107 38.426419 7.777498 186 182 125
-123.114237 38.426409 1.541605 178 173 140
-123.114186 38.426410 3.633046 182 185 134
-123.114723 38.426457 -1.603310 193 178 139
-123.115245 38.426522 -1.190900 193 177 144
-123.114897 38.426473 -2.452526 191 176 142
-123.114612 38.426440 -1.706413 199 178 129
-123.114865 38.426468 -2.416774 194 175 143
-123.114181 38.426404 3.694726 215 214 188
-123.114539 38.426430 -1.458873 184 167 129
-123.114314 38.426403 -0.448244 168 154 115
-123.115094 38.426499 -1.459176 216 197 156
-123.114808 38.426460 -2.265878 182 163 117
-123.114177 38.426402 4.290910 200 199 161
-123.114210 38.426399 2.799606 187 175 125
-123.114158 38.426400 4.824016 167 162 126
-123.114609 38.426432 -1.666049 200 182 124
-123.114201 38.426397 3.048124 216 213 191
-123.114543 38.426422 -1.559503 177 159 115
-123.114205 38.426394 3.157941 222 220 195
-123.114862 38.426454 -2.480784 205 190 157
-123.114445 38.426405 -1.052270 171 152 116
-123.115225 38.426504 -0.869111 202 183 147
-123.114100 38.426396 7.957806 204 188 147
-123.114077 38.426405 11.726536 179 170 105
-123.115068 38.426477 -1.362811 189 174 139
-123.115005 38.426460 -2.701097 211 192 154
-123.115137 38.426483 -1.111420 200 186 155
-123.114097 38.426389 8.312985 207 193 156
-123.114487 38.426399 -1.263252 172 147 110
-123.114292 38.426375 -0.480778 222 211 182
-123.114060 38.426390 10.067241 194 180 125
-123.114923 38.426447 -2.632689 197 182 149
-123.114770 38.426428 -2.341879 200 185 151
-123.114405 38.426386 -1.004391 189 169 130
-123.114845 38.426434 -2.532214 199 183 149
-123.115188 38.426480 -1.479475 202 183 142
-123.114234 38.426373 2.268466 230 223 189
-123.114167 38.426371 4.144159 217 215 191
-123.114479 38.426387 -1.235793 192 169 131
-123.114927 38.426437 -2.670112 200 182 142
-123.114313 38.426364 -0.828883 200 185 148
-123.114769 38.426416 -2.385081 184 169 133
-123.114741 38.426413 -2.215114 172 157 117
-123.114194 38.426363 2.706560 193 192 162
-123.115062 38.426460 -0.404667 193 179 148
-123.114213 38.426363 2.364494 220 213 168
-123.114152 38.426363 4.375111 225 223 198
-123.114482 38.426380 -1.351618 194 168 127
-123.114580 38.426391 -1.680556 180 160 123
-123.115125 38.426459 -1.588769 204 185 136
-123.114768 38.426411 -2.328268 190 173 137
-123.114541 38.426384 -1.557075 202 184 148
-123.114998 38.426439 -2.213800 197 178 143
-123.114298 38.426358 -0.148910 165 173 129
-123.115204 38.426471 -0.390791 215 194 150
-123.114341 38.426362 -0.034552 219 223 211
-123.114482 38.426374 -1.336451 178 151 111
-123.114103 38.426360 6.617712 197 190 144
-123.114436 38.426366 -1.103986 203 180 142
-123.114384 38.426359 -1.221247 175 155 121
-123.114278 38.426349 0.118580 179 180 135
-123.114147 38.426350 4.186559 202 194 166
-123.115239 38.426462 -1.601008 191 174 140
-123.114984 38.426423 -2.823618 200 185 153
-123.114073 38.426362 9.577690 218 218 204
-123.114090 38.426352 7.680957 218 214 186
-123.115227 38.426460 -0.082254 195 177 143
-123.114585 38.426371 -1.854929 201 184 146
-123.115201 38.426446 -2.283336 210 192 147
-123.114269 38.426335 -0.113713 206 186 144
-123.114250 38.426340 1.689809 220 219 166
-123.114200 38.426334 2.308349 212 192 143
-123.114798 38.426389 -2.165050 190 175 138
-123.114682 38.426374 -2.257327 181 163 126
-123.114474 38.426351 -1.329024 210 188 145
-123.114958 38.426404 -2.835501 192 178 144
-123.114889 38.426397 -2.652755 199 181 145
